# .PCD v0.7 - Point Cloud Data file format
VERSION 0.7
FIELDS x y z
SIZE 4 4 4
TYPE F F F
COUNT 1 1 1
WIDTH 192
HEIGHT 1
VIEWPOINT 0 0 0 1 0 0 0
POINTS 192
DATA ascii
91.044739 -83.206779 332.00003
91.591309 -83.206779 332.00003
89.126122 -83.457397 333
89.674339 -83.457397 333
90.222542 -83.457397 333
90.77076 -83.457397 333
87.194351 -84.257866 334.00003
87.744217 -84.257866 334.00003
88.294067 -84.257866 334.00003
88.843925 -84.257866 334.00003
88.843925 -83.708023 334.00003
84.697899 -85.613091 335
84.697899 -85.0616 335
85.249397 -84.510124 335
85.800903 -84.510124 335
86.352402 -84.510124 335
86.903908 -84.510124 335
97.382462 -81.201233 335
98.485474 -80.098274 335
99.036964 -80.098274 335
82.738129 -96.931206 336.00003
82.738129 -96.37809 336.00003
82.738129 -95.824959 336.00003
82.738129 -95.271828 336.00003
84.397583 -88.634293 336.00003
84.397583 -88.081161 336.00003
84.397583 -87.52803 336.00003
84.397583 -86.974915 336.00003
84.950737 -86.974915 336.00003
84.950737 -86.421783 336.00003
117.58653 -79.784248 336.00003
118.13967 -79.784248 336.00003
118.69282 -79.784248 336.00003
119.24597 -79.784248 336.00003
119.79913 -79.784248 336.00003
117.58653 -79.231117 336.00003
119.79913 -79.231117 336.00003
109.28929 -78.677986 336.00003
109.84244 -78.677986 336.00003
110.39559 -78.677986 336.00003
110.94873 -78.677986 336.00003
111.50188 -78.677986 336.00003
112.05503 -78.677986 336.00003
112.60818 -78.677986 336.00003
113.16134 -78.677986 336.00003
113.71448 -78.677986 336.00003
114.26762 -78.677986 336.00003
114.82078 -78.677986 336.00003
115.37392 -78.677986 336.00003
115.92708 -78.677986 336.00003
116.48023 -78.677986 336.00003
117.03338 -78.677986 336.00003
117.58653 -78.677986 336.00003
120.35226 -78.677986 336.00003
120.90542 -78.677986 336.00003
121.45856 -78.677986 336.00003
122.01172 -78.677986 336.00003
122.56487 -78.677986 336.00003
123.11801 -78.677986 336.00003
123.67116 -78.677986 336.00003
124.22431 -78.677986 336.00003
102.95701 -106.09607 337
103.5118 -106.09607 337
104.0666 -106.09607 337
104.62139 -106.09607 337
105.17619 -106.09607 337
105.73098 -106.09607 337
106.28578 -106.09607 337
106.84058 -106.09607 337
115.1625 -106.09607 337
115.7173 -106.09607 337
116.27209 -106.09607 337
125.14882 -104.43175 337
91.861099 -103.87697 337
92.415901 -103.87697 337
85.203568 -101.10311 337
85.758354 -101.10311 337
84.648766 -100.54833 337
84.093964 -99.993553 337
84.648766 -99.993553 337
103.5118 -80.576469 337
104.62139 -80.576469 337
105.17619 -80.576469 337
105.73098 -80.576469 337
106.28578 -80.576469 337
106.84058 -80.576469 337
107.39537 -80.576469 337
107.95016 -80.576469 337
108.50497 -80.576469 337
108.50497 -80.021698 337
109.05975 -80.021698 337
109.05975 -79.466927 337
124.59402 -79.466927 337
125.14882 -79.466927 337
125.70362 -79.466927 337
126.25842 -79.466927 337
126.8132 -79.466927 337
107.71406 -106.96732 338.00003
108.27049 -106.4109 338.00003
108.82694 -106.4109 338.00003
109.38338 -106.4109 338.00003
109.93982 -106.4109 338.00003
110.49626 -106.4109 338.00003
111.0527 -106.4109 338.00003
111.60915 -106.4109 338.00003
99.923874 -105.85449 338.00003
100.48031 -105.85449 338.00003
101.03676 -105.85449 338.00003
101.59319 -105.85449 338.00003
102.14964 -105.85449 338.00003
102.70609 -105.85449 338.00003
116.61712 -105.85449 338.00003
117.17357 -105.85449 338.00003
117.73 -105.85449 338.00003
120.51221 -105.29807 338.00003
121.6251 -104.74164 338.00003
122.18154 -104.74164 338.00003
125.52019 -104.18522 338.00003
126.07662 -104.18522 338.00003
126.63308 -104.18522 338.00003
127.18951 -104.18522 338.00003
127.74596 -104.18522 338.00003
128.3024 -104.18522 338.00003
128.85884 -104.18522 338.00003
129.41527 -104.18522 338.00003
129.97171 -103.62881 338.00003
90.464363 -103.07238 338.00003
91.020798 -103.07238 338.00003
129.97171 -103.07238 338.00003
130.52817 -103.07238 338.00003
131.08461 -103.07238 338.00003
131.64105 -102.51596 338.00003
131.64105 -101.95954 338.00003
132.19748 -101.95954 338.00003
132.75394 -101.95954 338.00003
83.787071 -99.177444 338.00003
83.787071 -93.056816 338.00003
84.343506 -92.500397 338.00003
127.74596 -79.702736 338.00003
128.3024 -79.702736 338.00003
129.41527 -79.702736 338.00003
129.97171 -79.702736 338.00003
133.14668 -101.70313 339.00003
133.70477 -101.70313 339.00003
134.82095 -101.14506 339.00003
135.93712 -100.02892 339.00003
137.0533 -98.912796 339.00003
137.61139 -98.354729 339.00003
137.61139 -97.796654 339.00003
138.16946 -97.796654 339.00003
138.16946 -97.238602 339.00003
138.72755 -97.238602 339.00003
138.16946 -96.680527 339.00003
138.16946 -96.122467 339.00003
138.72755 -96.122467 339.00003
139.28566 -95.564392 339.00003
139.84373 -95.564392 339.00003
140.40182 -94.448265 339.00003
140.40182 -93.890198 339.00003
140.40182 -93.33213 339.00003
140.95992 -92.774063 339.00003
140.95992 -92.216003 339.00003
140.95992 -91.657928 339.00003
141.51801 -91.657928 339.00003
142.0761 -91.099869 339.00003
140.95992 -88.309525 339.00003
140.95992 -87.751472 339.00003
140.40182 -87.193398 339.00003
140.40182 -86.635338 339.00003
140.40182 -86.077263 339.00003
139.28566 -85.519203 339.00003
139.84373 -85.519203 339.00003
139.28566 -84.961136 339.00003
138.16946 -84.403069 339.00003
138.72755 -84.403069 339.00003
136.49522 -83.845001 339.00003
137.0533 -83.845001 339.00003
137.61139 -83.845001 339.00003
136.49522 -83.286934 339.00003
135.93712 -82.728867 339.00003
136.49522 -82.728867 339.00003
134.82095 -82.170799 339.00003
135.37903 -82.170799 339.00003
134.82095 -81.61274 339.00003
133.14668 -81.054672 339.00003
133.70477 -81.054672 339.00003
134.26286 -81.054672 339.00003
133.14668 -80.496613 339.00003
130.91434 -79.938538 339.00003
131.47243 -79.938538 339.00003
132.03052 -79.938538 339.00003
132.58859 -79.938538 339.00003
