# .PCD v0.7 - Point Cloud Data file format
VERSION 0.7
FIELDS x y z
SIZE 4 4 4
TYPE F F F
COUNT 1 1 1
WIDTH 177
HEIGHT 1
VIEWPOINT 0 0 0 1 0 0 0
POINTS 177
DATA ascii
105.88948 37.255749 334.00003
90.493492 37.805584 334.00003
91.043343 37.805584 334.00003
91.593208 37.805584 334.00003
92.143066 37.805584 334.00003
92.692917 37.805584 334.00003
93.242783 37.805584 334.00003
93.792633 37.805584 334.00003
94.342484 37.805584 334.00003
94.892342 37.805584 334.00003
95.4422 37.805584 334.00003
95.992058 37.805584 334.00003
96.541908 37.805584 334.00003
97.091774 37.805584 334.00003
97.641632 37.805584 334.00003
98.191483 37.805584 334.00003
98.741341 37.805584 334.00003
99.291191 37.805584 334.00003
99.841049 37.805584 334.00003
100.39091 37.805584 334.00003
100.94077 37.805584 334.00003
101.49062 37.805584 334.00003
102.04047 37.805584 334.00003
102.59034 37.805584 334.00003
103.1402 37.805584 334.00003
103.69004 37.805584 334.00003
104.23991 37.805584 334.00003
104.78976 37.805584 334.00003
105.33961 37.805584 334.00003
105.88948 37.805584 334.00003
108.41251 35.712845 335
108.41251 36.264328 335
107.30951 36.815807 335
89.661423 37.918774 335
90.212921 37.918774 335
85.503876 38.031967 336.00003
86.05703 38.031967 336.00003
86.610176 38.031967 336.00003
87.16333 38.031967 336.00003
111.27894 35.371284 337
111.83373 35.371284 337
112.94333 35.371284 337
113.49812 35.371284 337
114.05291 36.480831 337
115.1625 37.035606 337
82.984375 38.145149 337
83.539169 38.145149 337
84.093964 38.145149 337
84.648766 38.145149 337
85.203568 38.145149 337
77.436424 39.809471 337
75.772041 40.364246 337
76.326836 40.364246 337
76.88163 40.364246 337
75.772041 40.919022 337
75.217239 41.473793 337
75.772041 41.473793 337
75.217239 42.028568 337
75.217239 42.583347 337
75.217239 43.138115 337
75.217239 43.692894 337
75.217239 44.247665 337
75.217239 44.802441 337
75.217239 45.357212 337
75.217239 45.911991 337
116.06068 37.145508 338.00003
116.61712 37.145508 338.00003
117.17357 37.145508 338.00003
117.73 37.145508 338.00003
117.73 37.701923 338.00003
117.73 38.258343 338.00003
118.28645 38.258343 338.00003
118.84289 38.258343 338.00003
119.39932 38.258343 338.00003
122.73798 38.258343 338.00003
123.29443 38.258343 338.00003
123.85086 38.258343 338.00003
124.4073 38.258343 338.00003
82.117744 38.814766 338.00003
82.674187 38.814766 338.00003
83.230621 38.814766 338.00003
124.4073 38.814766 338.00003
81.561302 39.371185 338.00003
124.96375 39.371185 338.00003
79.891975 39.927605 338.00003
80.448418 39.927605 338.00003
81.00486 39.927605 338.00003
81.561302 39.927605 338.00003
75.440445 46.604649 338.00003
75.440445 47.161068 338.00003
75.440445 47.717487 338.00003
75.99688 47.717487 338.00003
76.553329 47.717487 338.00003
77.109772 47.717487 338.00003
77.109772 48.273911 338.00003
77.109772 48.830326 338.00003
77.666206 49.386749 338.00003
77.666206 49.943169 338.00003
77.666206 50.499592 338.00003
77.109772 51.056007 338.00003
77.895981 55.113525 339.00003
79.012161 55.113525 339.00003
79.570259 55.113525 339.00003
80.686424 55.113525 339.00003
81.244514 55.113525 339.00003
80.128334 55.671593 339.00003
81.802605 55.671593 339.00003
99.103333 62.368389 339.00003
83.163376 56.955238 340
83.723106 56.955238 340
84.530739 57.122753 341.00003
84.530739 57.684116 341.00003
84.530739 58.245472 341.00003
84.530739 58.806831 341.00003
87.337639 60.490906 341.00003
101.37215 61.613632 341.00003
101.93353 61.613632 341.00003
102.49491 61.613632 341.00003
89.58316 62.736347 341.00003
90.144547 62.736347 341.00003
90.705925 62.736347 341.00003
91.267296 62.736347 341.00003
91.828682 62.736347 341.00003
92.39006 62.736347 341.00003
92.951439 62.736347 341.00003
93.512825 62.736347 341.00003
94.074203 62.736347 341.00003
94.635582 62.736347 341.00003
95.196968 62.736347 341.00003
95.758347 62.736347 341.00003
96.319717 62.736347 341.00003
96.881096 62.736347 341.00003
85.341652 58.979282 342
85.904678 58.979282 342
85.904678 59.542286 342
86.467705 60.105293 342
88.156784 60.668297 342
88.71981 60.668297 342
88.71981 61.231304 342
89.282837 61.794312 342
89.282837 62.357315 342
120.2493 62.920326 342
121.93839 63.483326 342
131.3297 52.375927 343.00003
131.3297 52.940578 343.00003
131.3297 54.069878 343.00003
131.3297 54.634533 343.00003
130.20036 55.763832 343.00003
130.76501 55.763832 343.00003
129.07101 56.893135 343.00003
129.6357 56.893135 343.00003
128.50633 57.457787 343.00003
128.50633 58.022438 343.00003
127.37699 58.58709 343.00003
127.94167 58.58709 343.00003
127.37699 59.151741 343.00003
126.81232 59.716389 343.00003
124.55363 60.28104 343.00003
125.1183 60.28104 343.00003
125.68297 60.28104 343.00003
126.24764 60.28104 343.00003
124.55363 60.845692 343.00003
123.98895 61.410347 343.00003
121.16559 61.974998 343.00003
121.73026 61.974998 343.00003
122.29493 61.974998 343.00003
122.8596 61.974998 343.00003
123.42429 61.974998 343.00003
121.16559 62.539654 343.00003
112.13082 63.104301 343.00003
113.26016 63.104301 343.00003
113.82484 63.104301 343.00003
114.95419 63.104301 343.00003
115.51887 63.104301 343.00003
116.08353 63.104301 343.00003
116.6482 63.104301 343.00003
117.21288 63.104301 343.00003
