-0.501108 0.711751 0.253019 0.683916 -0.0354594 0.728698
-0.501108 0.716185 0.254599 0.713346 -0.167575 0.680482
-0.501108 0.720621 0.255204 0.678452 -0.130306 0.722996
-0.501108 0.725055 0.256197 0.710583 -0.124722 0.692471
-0.501108 0.729489 0.2568 0.748446 -0.0751908 0.658919
-0.501108 0.733923 0.257209 0.736623 -0.0472848 0.674649
-0.501108 0.73836 0.257423 0.664997 -0.0683736 0.743709
-0.501108 0.742794 0.258025 0.655713 -0.0690438 0.751847
-0.501108 0.747228 0.258237 0.675443 -0.00289286 0.737407
-0.501108 0.751662 0.258059 0.664631 -0.177969 0.725667
-0.501108 0.756096 0.260412 0.652613 -0.117779 0.748481
-0.501108 0.760532 0.259454 0.664862 -0.0679693 0.743867
-0.501108 0.764966 0.261222 0.659015 -0.148214 0.737382
-0.501108 0.769401 0.261238 0.74308 -0.04621 0.667605
-0.501108 0.773835 0.261837 0.706797 -0.0641498 0.704502
-0.501108 0.778271 0.262044 0.72947 -0.0470913 0.68239
-0.501108 0.782705 0.262448 0.627263 -0.0194958 0.778563
-0.501108 0.787139 0.262268 0.555907 0.397941 0.729802
-0.501108 0.791573 0.257612 0.150861 0.795748 0.586538
-0.501108 0.796007 0.250235 0.0073922 0.885371 0.464827
-0.501108 0.800444 0.240718 -0.0308654 0.902574 0.429427
-0.501108 0.804878 0.231594 -0.0399621 0.903975 0.425715
-0.501108 0.809312 0.221886 0.0165783 0.897408 0.440891
-0.501108 0.813746 0.21354 -0.00264877 0.907955 0.41906
-0.501108 0.818182 0.202668 -0.0673946 0.904242 0.421668
-0.501108 0.822616 0.194521 -0.00282909 0.899305 0.437313
-0.501108 0.82705 0.184431 -0.0394628 0.907182 0.418883
-0.501108 0.831485 0.175313 0.00625454 0.912515 0.408995
-0.501108 0.835919 0.164643 -0.0118939 0.909373 0.415812
-0.501108 0.840355 0.155916 0.0535492 0.901486 0.429483
-0.501108 0.844789 0.146026 -0.0736986 0.911462 0.404729
-0.501108 0.849223 0.135943 -0.0468108 0.914379 0.402143
-0.496674 -0.0509976 0.0258076 -0.893446 -0.276054 0.354328
-0.496674 -0.0465631 0.0292639 -0.878217 -0.277469 0.389545
-0.496674 -0.0421285 0.0321256 -0.845827 -0.344442 0.407352
-0.496674 -0.0376938 0.0367633 -0.795731 -0.391013 0.462517
-0.496674 -0.0332593 0.0396229 -0.785732 -0.300647 0.540589
-0.496674 -0.0288247 0.0416943 -0.853678 -0.220392 0.471869
-0.496674 -0.0243901 0.0437657 -0.851661 -0.230292 0.470786
-0.496674 -0.0199555 0.0460347 -0.869467 -0.208951 0.447623
-0.496674 -0.0155209 0.0479065 -0.816173 -0.320538 0.480747
-0.496674 -0.0110864 0.0519475 -0.823124 -0.314974 0.472502
-0.496674 -0.00665177 0.0538194 -0.817503 -0.270919 0.508224
-0.496674 -0.00221719 0.056675 -0.839247 -0.211324 0.501006
-0.496674 0.00221741 0.057559 -0.82949 -0.245085 0.501876
-0.496674 0.00665199 0.0610054 -0.851499 -0.2621 0.454152
-0.496674 0.0110866 0.0626777 -0.834997 -0.258634 0.485684
-0.496674 0.0155211 0.0657289 -0.815239 -0.348836 0.462276
-0.496674 0.0199558 0.0693708 -0.808451 -0.294024 0.50986
-0.496674 0.0243904 0.0708435 -0.852714 -0.21166 0.477576
-0.496674 0.0288249 0.073302 -0.836234 -0.240302 0.492917
-0.496674 0.0332595 0.0751679 -0.837374 -0.280705 0.469051
-0.496674 0.037694 0.0786102 -0.823747 -0.321095 0.467267
-0.496674 0.0421287 0.0812624 -0.832608 -0.268301 0.48454
-0.496674 0.0465633 0.0835213 -0.854561 -0.201231 0.478782
-0.496674 0.0509978 0.0849901 -0.79756 -0.309547 0.517762
-0.496674 0.0554324 0.0888235 -0.821506 -0.336491 0.460327
-0.496674 0.0598671 0.0914737 -0.819734 -0.285625 0.496442
-0.496674 0.0643017 0.0939262 -0.817446 -0.270048 0.508778
-0.496674 0.0687362 0.0961812 -0.839618 -0.190806 0.508561
-0.496674 0.0731707 0.0972528 -0.840431 -0.24555 0.483095
-0.496674 0.0776053 0.100689 -0.808827 -0.325143 0.489981
-0.496674 0.08204 0.10314 -0.819879 -0.259307 0.510448
-0.496674 0.0864746 0.105195 -0.839428 -0.23742 0.488868
-0.496674 0.0909091 0.107446 -0.840426 -0.277624 0.465413
-0.496674 0.0953437 0.110485 -0.807516 -0.34764 0.476513
-0.496674 0.0997784 0.113916 -0.77987 -0.345809 0.521746
-0.496674 0.104213 0.116364 -0.764242 -0.281465 0.580269
-0.496674 0.108647 0.118218 -0.77153 -0.222831 0.595892
-0.496674 0.113082 0.119681 -0.662899 -0.326602 0.673718
-0.496674 0.117517 0.122519 -0.651123 -0.437964 0.61986
-0.496674 0.121951 0.125947 -0.625902 -0.258528 0.735806
-0.496674 0.126386 0.125634 -0.628463 -0.243099 0.738876
-0.496674 0.13082 0.128865 -0.489137 -0.394047 0.778121
-0.496674 0.135255 0.130126 -0.314011 -0.22159 0.923198
-0.496674 0.13969 0.130994 0.0364865 -0.170696 0.984648
-0.496674 0.144124 0.131664 0.143728 -0.189815 0.971243
-0.496674 0.148559 0.132726 0.399394 -0.286054 0.871009
-0.496674 0.152993 0.134576 0.66866 -0.231933 0.706471
-0.496674 0.157428 0.135639 0.706457 -0.120596 0.697406
-0.496674 0.161863 0.13611 -0.713123 -0.692704 0.107786
-0.496674 0.166297 0.192637 -0.160946 -0.975461 0.150241
-0.496674 0.170732 0.193694 -0.594622 0.581623 0.555104
-0.496674 0.175166 0.183345 -0.051685 0.927804 0.36947
-0.496674 0.179601 0.171422 -0.115081 0.93374 0.338948
-0.496674 0.184035 0.158912 -0.19528 0.921878 0.334675
-0.496674 0.18847 0.146992 -0.134676 0.895526 0.424141
-0.496674 0.192904 0.140185 -0.66116 0.331748 0.672912
-0.496674 0.197338 0.14262 -0.742612 -0.359998 0.564738
-0.496674 0.201774 0.145839 -0.814035 -0.334283 0.474976
-0.496674 0.206209 0.148862 -0.875033 -0.185736 0.447012
-0.496674 0.210643 0.149525 -0.858923 -0.187389 0.476589
-0.496674 0.215077 0.152348 -0.802049 -0.336228 0.493628
-0.496674 0.219513 0.155565 -0.802288 -0.258989 0.537828
-0.496674 0.223947 0.156619 -0.812902 -0.24305 0.52926
-0.496674 0.228381 0.159638 -0.746702 -0.329331 0.577908
-0.496674 0.232815 0.161674 -0.768917 -0.233582 0.595152
-0.496674 0.23725 0.163118 -0.77928 -0.169852 0.603219
-0.496674 0.241686 0.164172 -0.733398 -0.24821 0.632865
-0.496674 0.24612 0.166599 -0.776471 -0.21863 0.591011
-0.496674 0.250554 0.167453 -0.698249 -0.221559 0.680705
-0.496674 0.254988 0.169484 -0.765729 -0.223 0.603265
-0.496674 0.259424 0.170731 -0.761351 -0.0669311 0.644876
-0.496674 0.263858 0.170404 -0.684049 -0.152909 0.713229
-0.496674 0.268293 0.172631 -0.764456 -0.19926 0.613109
-0.496674 0.272727 0.173288 -0.73712 -0.258176 0.624499
-0.496674 0.277161 0.176299 -0.750723 -0.178396 0.636074
-0.496674 0.281597 0.175774 -0.72675 -0.100231 0.67955
-0.496674 0.286031 0.177606 -0.721311 -0.276363 0.635086
-0.496674 0.290465 0.179634 -0.731596 -0.283441 0.620022
-0.496674 0.294899 0.181661 -0.764376 -0.198851 0.613342
-0.496674 0.299336 0.182509 -0.766364 -0.185688 0.614984
-0.496674 0.30377 0.184339 -0.750623 -0.17797 0.636311
-0.496674 0.308204 0.18499 -0.754739 -0.189477 0.628066
-0.496674 0.312638 0.187015 -0.73804 -0.220528 0.637703
-0.496674 0.317072 0.188057 -0.758417 -0.16234 0.631229
-0.496674 0.321508 0.189296 -0.739558 -0.244451 0.627135
-0.496674 0.325942 0.191515 -0.749372 -0.137754 0.647661
-0.496674 0.330377 0.191182 -0.720083 -0.213367 0.660269
-0.496674 0.334811 0.194381 -0.758193 -0.259403 0.598209
-0.496674 0.339247 0.195027 -0.744245 -0.179285 0.643394
-0.496674 0.343681 0.196851 -0.782168 -0.142142 0.606637
-0.496674 0.348115 0.197107 -0.764208 -0.198033 0.613815
-0.496674 0.352549 0.199713 -0.700637 -0.245672 0.66989
-0.496674 0.356983 0.20036 -0.753896 -0.149648 0.639724
-0.496674 0.36142 0.201788 -0.691838 -0.149547 0.706397
-0.496674 0.365854 0.202237 -0.753858 -0.149511 0.639801
-0.496674 0.370288 0.203862 -0.736857 -0.256678 0.625427
-0.496674 0.374722 0.205877 -0.723811 -0.261895 0.638363
-0.496674 0.379158 0.2075 -0.714221 -0.277686 0.642479
-0.496674 0.383592 0.209711 -0.707957 -0.242606 0.663279
-0.496674 0.388026 0.210745 -0.749097 -0.136728 0.648197
-0.496674 0.392461 0.211581 -0.659698 -0.257982 0.705864
-0.496674 0.396895 0.213985 -0.689838 -0.221377 0.689287
-0.496674 0.401331 0.21443 -0.710244 -0.11553 0.694411
-0.496674 0.405765 0.21546 -0.729213 -0.140918 0.66962
-0.496674 0.410199 0.216296 -0.577005 -0.294798 0.761682
-0.496674 0.414633 0.218894 -0.609171 -0.226871 0.759895
-0.496674 0.419069 0.218944 -0.597106 -0.14819 0.788355
-0.496674 0.423504 0.220561 -0.531209 -0.208671 0.821142
-0.496674 0.427938 0.221197 -0.436854 -0.147013 0.887438
-0.496674 0.432372 0.222029 -0.281458 -0.0317121 0.959049
-0.496674 0.436806 0.221491 -0.37445 0.0103803 0.927189
-0.496674 0.441242 0.221932 -0.441357 0.0299088 0.896833
-0.496674 0.445676 0.221195 -0.391622 0.0307535 0.919612
-0.496674 0.45011 0.221634 -0.356689 0.544767 0.758948
-0.496674 0.454545 0.214829 -0.295332 0.914341 0.277054
-0.496674 0.458981 0.192363 -0.776557 -0.351657 0.522777
-0.496674 0.463415 0.220794 0.165593 -0.94534 0.280911
-0.496674 0.467849 0.222211 0.348933 -0.284988 0.892764
-0.496674 0.472283 0.223626 0.583425 -0.0795602 0.80826
-0.496674 0.476717 0.223083 0.559128 -0.0811186 0.825103
-0.496674 0.481153 0.224498 0.557095 -0.117035 0.82216
-0.496674 0.485588 0.224346 0.606161 -0.0776556 0.791542
-0.496674 0.490022 0.225368 0.563276 -0.185482 0.805181
-0.496674 0.494456 0.22639 0.673426 -0.10394 0.731911
-0.496674 0.498892 0.226627 0.637695 -0.074966 0.766633
-0.496674 0.503326 0.227258 0.650955 -0.154551 0.743217
-0.496674 0.50776 0.228473 0.658658 -0.023635 0.752071
-0.496674 0.512194 0.227535 0.607816 -0.00735678 0.794044
-0.496674 0.516629 0.228555 0.612198 -0.144269 0.777431
-0.496674 0.521065 0.229182 0.675901 -0.0552819 0.734916
-0.496674 0.525499 0.229221 0.675182 -0.0713343 0.734194
-0.496674 0.529933 0.230044 0.701492 -0.0377044 0.711679
-0.496674 0.534367 0.22969 0.737091 -0.0652137 0.672639
-0.496674 0.538803 0.230904 0.646466 -0.0900798 0.757607
-0.496674 0.543237 0.230746 0.687747 -0.131984 0.713852
-0.496674 0.547672 0.232542 0.675749 -0.0548491 0.735089
-0.496674 0.552106 0.231409 0.69353 0.0256857 0.719969
-0.496674 0.55654 0.232227 0.660017 -0.151998 0.735714
-0.496674 0.560976 0.233241 0.684334 -0.0540314 0.727164
-0.496674 0.56541 0.232885 0.743598 -0.0640382 0.665553
-0.496674 0.569844 0.234093 0.654378 -0.198692 0.729596
-0.496674 0.574278 0.2353 0.688942 -0.115965 0.71548
-0.496674 0.578715 0.235531 0.723979 -0.0357163 0.688897
-0.496674 0.583149 0.235761 0.683533 -0.0695989 0.726594
-0.496674 0.587583 0.23638 0.713678 -0.0969306 0.693734
-0.496674 0.592017 0.237 0.706034 -0.0979194 0.701376
-0.496674 0.596451 0.237619 0.744935 -0.00494461 0.667119
-0.496674 0.600887 0.237066 0.709236 -0.020663 0.704669
-0.496674 0.605321 0.237878 0.654632 -0.104293 0.748719
-0.496674 0.609756 0.238301 0.684873 -0.0212205 0.728353
-0.496674 0.61419 0.238138 0.730418 -0.0497599 0.681185
-0.496674 0.618626 0.23895 0.661261 -0.135023 0.737904
-0.496674 0.62306 0.23976 0.744444 -0.134002 0.6541
-0.496674 0.627494 0.240766 0.681439 -0.100576 0.724932
-0.496674 0.631928 0.240991 0.708741 -0.0356652 0.704567
-0.496674 0.636362 0.241215 0.647481 -0.0551209 0.760085
-0.496674 0.640799 0.241634 0.729648 -0.0642772 0.680795
-0.496674 0.645233 0.242053 0.675184 -0.0532045 0.735728
-0.496674 0.649667 0.242274 0.675648 -0.162619 0.719065
-0.496674 0.654101 0.244058 0.634909 -0.105677 0.765326
-0.496674 0.658537 0.2435 0.648313 -0.00458088 0.76136
-0.496674 0.662971 0.244112 0.735649 -0.0779626 0.672862
-0.496674 0.667405 0.244527 0.698748 -0.0822582 0.710622
-0.496674 0.67184 0.245138 0.742281 -0.0769807 0.665652
-0.496674 0.676274 0.245553 0.721549 -0.0794636 0.687789
-0.496674 0.68071 0.246162 0.654224 -0.102952 0.74926
-0.496674 0.685144 0.246772 0.708719 -0.0193297 0.705226
-0.496674 0.689578 0.246405 0.709322 -0.140297 0.690781
-0.496674 0.694012 0.248572 0.707423 -0.211039 0.674548
-0.496674 0.698448 0.249181 0.730752 0.0115058 0.682546
-0.496674 0.702882 0.248423 0.666364 -0.0364527 0.744735
-0.496674 0.707317 0.249614 0.709242 -0.140004 0.690923
-0.496674 0.711751 0.250221 0.655906 -0.0696589 0.751622
-0.496674 0.716185 0.250436 0.72133 -0.0788072 0.688094
-0.496674 0.720621 0.251237 0.682742 -0.0672728 0.727556
-0.496674 0.725055 0.251256 0.737388 -0.0178757 0.675233
-0.496674 0.729489 0.251472 0.727464 -0.0925734 0.679872
-0.496674 0.733923 0.252464 0.745293 -0.118092 0.656196
-0.496674 0.73836 0.253068 0.726334 -0.107193 0.678932
-0.496674 0.742794 0.253865 0.717902 -0.123137 0.685167
-0.496674 0.747228 0.254661 0.64613 -0.0697711 0.760031
-0.496674 0.751662 0.254679 0.646762 -0.0530598 0.760844
-0.496674 0.756096 0.25528 0.733174 -0.105749 0.671769
-0.496674 0.760532 0.256076 0.638451 -0.167612 0.75119
-0.496674 0.764966 0.257259 0.750294 0.012126 0.660993
-0.496674 0.769401 0.255912 0.691061 0.0606982 0.720243
-0.496674 0.773835 0.256511 0.64617 -0.181413 0.741318
-0.496674 0.778271 0.258083 0.69964 -0.155284 0.697417
-0.496674 0.782705 0.258486 0.62733 0.0145948 0.778617
-0.496674 0.787139 0.257918 0.646635 0.176716 0.742048
-0.496674 0.791573 0.256375 0.348047 0.625615 0.69819
-0.496674 0.796007 0.249969 -0.00305961 0.85705 0.515225
-0.496674 0.800444 0.24162 -0.0221702 0.895452 0.444606
-0.496674 0.804878 0.232107 0.00658026 0.909572 0.415493
-0.496674 0.809312 0.222205 0.0247596 0.909291 0.415425
-0.496674 0.813746 0.212694 0.0636813 0.899334 0.4326
-0.496674 0.818182 0.203766 0.00664947 0.9046 0.42621
-0.496674 0.822616 0.19387 0.0063524 0.912554 0.408906
-0.496674 0.82705 0.183974 -0.011894 0.907819 0.419194
-0.496674 0.831485 0.174663 0.0446354 0.900164 0.433259
-0.496674 0.835919 0.165547 -0.094224 0.903796 0.417462
-0.496674 0.840355 0.155461 -0.0220904 0.898981 0.437431
-0.496674 0.844789 0.14732 -0.00286141 0.906147 0.422954
-0.496674 0.849223 0.13646 -0.0604373 0.924098 0.377346
-0.492238 -0.0820398 0.0141715 -0.885109 -0.349325 0.307497
-0.492238 -0.0776051 0.0192103 -0.85413 -0.364041 0.371398
-0.492238 -0.0731705 0.0228662 -0.802009 -0.373713 0.465962
-0.492238 -0.068736 0.0263225 -0.805725 -0.305347 0.507514
-0.492238 -0.0643015 0.0282023 -0.825064 -0.299036 0.479423
-0.492238 -0.0598667 0.0318562 -0.805721 -0.305243 0.507583
-0.492238 -0.0554322 0.0335345 -0.848686 -0.265004 0.457717
-0.492238 -0.0509976 0.0369908 -0.85793 -0.278649 0.431638
-0.492238 -0.0465631 0.0392617 -0.854515 -0.228454 0.466491
-0.492238 -0.0421285 0.0413331 -0.856916 -0.258129 0.446166
-0.492238 -0.0376938 0.0443923 -0.805783 -0.278934 0.522408
-0.492238 -0.0332593 0.0460686 -0.793343 -0.313403 0.521905
-0.492238 -0.0288247 0.0497185 -0.825803 -0.305628 0.473964
-0.492238 -0.0243901 0.0517879 -0.8304 -0.226343 0.509121
-0.492238 -0.0199555 0.0536617 -0.861944 -0.18829 0.470744
-0.492238 -0.0155209 0.055336 -0.846363 -0.274001 0.45672
-0.492238 -0.0110864 0.0589819 -0.785619 -0.350938 0.509554
-0.492238 -0.00665177 0.0614444 -0.816179 -0.262807 0.514573
-0.492238 -0.00221719 0.0635118 -0.829474 -0.245105 0.501892
-0.492238 0.00221741 0.0657748 -0.825799 -0.305287 0.47419
-0.492238 0.00665199 0.0692211 -0.845139 -0.259316 0.467435
-0.492238 0.0110866 0.0706958 -0.834214 -0.283384 0.473053
-0.492238 0.0155211 0.0745353 -0.830971 -0.285843 0.477264
-0.492238 0.0199558 0.076008 -0.832605 -0.268523 0.484422
-0.492238 0.0243904 0.0794504 -0.834878 -0.29033 0.467639
-0.492238 0.0288249 0.0815138 -0.835859 -0.26603 0.480174
-0.492238 0.0332595 0.0843655 -0.837361 -0.280669 0.469096
-0.492238 0.037694 0.08682 -0.819905 -0.259821 0.510146
-0.492238 0.0421287 0.0888814 -0.839023 -0.263522 0.476022
-0.492238 0.0465633 0.0917311 -0.835823 -0.212667 0.506135
-0.492238 0.0509978 0.0926091 -0.866934 -0.209955 0.452044
-0.492238 0.0554324 0.0958499 -0.805001 -0.328252 0.49419
-0.492238 0.0598671 0.0985 -0.826728 -0.227434 0.514583
-0.492238 0.0643017 0.0997692 -0.800331 -0.298891 0.519744
-0.492238 0.0687362 0.103601 -0.763926 -0.348454 0.543137
-0.492238 0.0731707 0.105461 -0.818505 -0.251103 0.516717
-0.492238 0.0776053 0.107911 -0.749251 -0.339419 0.568699
-0.492238 0.08204 0.110753 -0.722389 -0.363899 0.58799
-0.492238 0.0864746 0.113399 -0.665669 -0.371655 0.647114
-0.492238 0.0909091 0.115847 -0.633258 -0.350295 0.690129
-0.492238 0.0953437 0.117901 -0.625946 -0.258974 0.735612
-0.492238 0.0997784 0.118971 -0.418149 -0.212777 0.883107
-0.492238 0.104213 0.120038 -0.190435 -0.343889 0.919497
-0.492238 0.108647 0.122287 -0.176914 -0.230343 0.956893
-0.492238 0.113082 0.122173 -0.0914697 -0.292395 0.951913
-0.492238 0.117517 0.125011 0.194236 -0.378332 0.905062
-0.492238 0.121951 0.125881 0.537156 -0.214196 0.815833
-0.492238 0.126386 0.12734 0.681791 -0.200263 0.703602
-0.492238 0.13082 0.128406 0.757969 -0.0694102 0.648587
-0.492238 0.135255 0.12829 0.703882 -0.0129087 0.7102
-0.492238 0.13969 0.128565 0.534556 -0.0897725 0.840352
-0.492238 0.144124 0.129236 0.327378 -0.0796098 0.941534
-0.492238 0.148559 0.129316 0.20954 0.415953 0.884916
-0.492238 0.152993 0.125067 0.0577988 0.220196 0.973742
-0.492238 0.157428 0.12731 -0.00916459 -0.992197 0.124344
-0.492238 0.161863 0.19584 -0.674652 -0.732438 0.0915432
-0.492238 0.166297 0.198272 -0.7282 -0.0866658 0.679863
-0.492238 0.170732 0.196969 -0.290042 0.805358 0.516985
-0.492238 0.175166 0.184457 -0.150788 0.923669 0.352277
-0.492238 0.179601 0.173715 -0.150825 0.923651 0.352307
-0.492238 0.184035 0.161205 -0.0849291 0.946575 0.3111
-0.492238 0.18847 0.146729 -0.443762 0.694133 0.566794
-0.492238 0.192904 0.150343 -0.845019 -0.257268 0.468782
-0.492238 0.197338 0.151596 -0.819438 -0.188936 0.541133
-0.492238 0.201774 0.153438 -0.788275 -0.286589 0.544509
-0.492238 0.206209 0.156264 -0.747226 -0.288483 0.598691
-0.492238 0.210643 0.157712 -0.797337 -0.175765 0.577374
-0.492238 0.215077 0.158964 -0.756692 -0.21521 0.617334
-0.492238 0.219513 0.160804 -0.722607 -0.240239 0.648169
-0.492238 0.223947 0.16225 -0.790685 -0.189859 0.58204
-0.492238 0.228381 0.163697 -0.744072 -0.278696 0.607194
-0.492238 0.232815 0.166321 -0.737179 -0.258757 0.624189
-0.492238 0.23725 0.167375 -0.731484 -0.184758 0.656351
-0.492238 0.241686 0.168818 -0.725758 -0.309068 0.614615
-0.492238 0.24612 0.171835 -0.742565 -0.194454 0.640925
-0.492238 0.250554 0.17151 -0.731352 -0.128927 0.669703
-0.492238 0.254988 0.173541 -0.704522 -0.295597 0.645191
-0.492238 0.259424 0.175573 -0.700291 -0.149673 0.69799
-0.492238 0.263858 0.175443 -0.765673 -0.222832 0.603399
-0.492238 0.268293 0.178847 -0.715487 -0.24196 0.655388
-0.492238 0.272727 0.178718 -0.748834 -0.0681411 0.659246
-0.492238 0.277161 0.179765 -0.7193 -0.173694 0.672635
-0.492238 0.281597 0.181009 -0.749881 -0.275147 0.601642
-0.492238 0.286031 0.18382 -0.768753 -0.232784 0.595677
-0.492238 0.290465 0.184475 -0.710697 -0.230249 0.664752
-0.492238 0.294899 0.186894 -0.705648 -0.218469 0.674042
-0.492238 0.299336 0.187349 -0.70327 -0.232518 0.671824
-0.492238 0.30377 0.189963 -0.70818 -0.243898 0.662567
-0.492238 0.308204 0.190613 -0.766974 -0.0653964 0.638337
-0.492238 0.312638 0.190871 -0.752364 -0.164098 0.637981
-0.492238 0.317072 0.192894 -0.700005 -0.284362 0.655081
-0.492238 0.321508 0.194722 -0.744298 -0.218065 0.631244
-0.492238 0.325942 0.195959 -0.715236 -0.145332 0.683605
-0.492238 0.330377 0.196608 -0.786685 -0.234946 0.5709
-0.492238 0.334811 0.199609 -0.676736 -0.292838 0.675481
-0.492238 0.339247 0.200451 -0.736293 -0.140469 0.661923
-0.492238 0.343681 0.201491 -0.748497 -0.190872 0.635075
-0.492238 0.348115 0.203117 -0.78056 -0.155137 0.605523
-0.492238 0.352549 0.203764 -0.729029 -0.196859 0.655563
-0.492238 0.356983 0.205782 -0.748449 -0.190667 0.635193
-0.492238 0.36142 0.206426 -0.754515 -0.188599 0.6286
-0.492238 0.365854 0.208442 -0.77668 -0.239169 0.582723
-0.492238 0.370288 0.210066 -0.753962 -0.225827 0.616882
-0.492238 0.374722 0.211688 -0.737562 -0.125488 0.663518
-0.492238 0.379158 0.211742 -0.645739 -0.173407 0.743607
-0.492238 0.383592 0.213758 -0.562731 -0.313508 0.764883
-0.492238 0.388026 0.215378 -0.587304 -0.133057 0.798354
-0.492238 0.392461 0.215235 -0.640741 -0.126123 0.757326
-0.492238 0.396895 0.216855 -0.385674 -0.333272 0.860341
-0.492238 0.401331 0.218671 -0.488438 -0.232759 0.840982
-0.492238 0.405765 0.219309 -0.456915 -0.0494993 0.888132
-0.492238 0.410199 0.219166 -0.455651 -0.0884058 0.885757
-0.492238 0.414633 0.220196 -0.135228 -0.183124 0.973745
-0.492238 0.419069 0.220834 -0.2607 -0.0956858 0.960666
-0.492238 0.423504 0.22108 -0.178739 -0.118748 0.976704
-0.492238 0.427938 0.221912 -0.199476 -0.11817 0.972751
-0.492238 0.432372 0.222155 0.08161 -0.054863 0.995153
-0.492238 0.436806 0.222401 -0.0926109 -0.183498 0.978648
-0.492238 0.441242 0.223819 -0.0932543 -0.141178 0.985582
-0.492238 0.445676 0.223672 -0.136784 0.0982747 0.985714
-0.492238 0.45011 0.222935 0.152023 0.424079 0.892774
-0.492238 0.454545 0.219457 -0.148262 0.931879 0.33109
-0.492238 0.458981 0.197971 -0.824588 0.193831 0.531492
-0.492238 0.463415 0.216224 0.854823 -0.480108 0.19691
-0.492238 0.467849 0.219597 0.633025 -0.278444 0.722321
-0.492238 0.472283 0.219643 0.667756 -0.0403949 0.743284
-0.492238 0.476717 0.22008 0.605304 -0.0951825 0.790283
-0.492238 0.481153 0.22071 0.700573 -0.0697914 0.710159
-0.492238 0.485588 0.22095 0.626667 -0.0930221 0.773715
-0.492238 0.490022 0.221776 0.676943 -0.0234663 0.735662
-0.492238 0.494456 0.221233 0.652565 -0.138692 0.744932
-0.492238 0.498892 0.223428 0.652467 -0.215326 0.726582
-0.492238 0.503326 0.223861 0.701978 -0.0224822 0.711844
-0.492238 0.50776 0.223708 0.701955 -0.0224131 0.711869
-0.492238 0.512194 0.224141 0.666304 -0.0723915 0.742158
-0.492238 0.516629 0.224574 0.687865 -0.13247 0.713648
-0.492238 0.521065 0.225787 0.737793 -0.0506793 0.673122
-0.492238 0.525499 0.22524 0.685529 0.00946201 0.727984
-0.492238 0.529933 0.225671 0.658534 -0.0233236 0.75219
-0.492238 0.534367 0.225516 0.650819 -0.154057 0.743439
-0.492238 0.538803 0.227509 0.645163 -0.20138 0.737028
-0.492238 0.543237 0.22794 0.629001 0.0103986 0.777335
-0.492238 0.547672 0.227392 0.685413 -0.00623383 0.728128
-0.492238 0.552106 0.228016 0.608695 -0.17696 0.773418
-0.492238 0.55654 0.229421 0.690207 -0.100723 0.716567
-0.492238 0.560976 0.229261 0.693479 0.0257692 0.720016
-0.492238 0.56541 0.229104 0.697128 -0.114903 0.707679
-0.492238 0.569844 0.230702 0.654822 -0.104966 0.748459
-0.492238 0.574278 0.230347 0.73048 0.054539 0.680753
-0.492238 0.578715 0.229992 0.736866 -0.0645873 0.672947
-0.492238 0.583149 0.231199 0.667213 -0.165582 0.72623
-0.492238 0.587583 0.232013 0.685014 -0.0216392 0.728209
-0.492238 0.592017 0.231462 0.737756 0.0393922 0.673918
-0.492238 0.596451 0.231494 0.692517 -0.05292 0.719458
-0.492238 0.600887 0.232115 0.676197 -0.221721 0.702564
-0.492238 0.605321 0.234294 0.715021 -0.210323 0.666716
-0.492238 0.609756 0.234913 0.724022 0.0253828 0.68931
-0.492238 0.61419 0.233967 0.701321 -0.0207329 0.712544
-0.492238 0.618626 0.23517 0.647595 -0.0555015 0.759961
-0.492238 0.62306 0.234615 0.698004 -0.0985339 0.709283
-0.492238 0.627494 0.236401 0.755972 -0.0617985 0.65168
-0.492238 0.631928 0.235456 0.665641 -0.0703554 0.742948
-0.492238 0.636362 0.237242 0.698921 -0.0828417 0.710385
-0.492238 0.640799 0.236491 0.714372 -0.0809622 0.695066
-0.492238 0.645233 0.238275 0.727898 -0.0939957 0.679212
-0.492238 0.649667 0.237719 0.63494 -0.105803 0.765283
-0.492238 0.654101 0.239501 0.725992 -0.17932 0.663912
-0.492238 0.658537 0.240113 0.708397 0.0421727 0.704553
-0.492238 0.662971 0.23897 0.675372 0.0441353 0.736156
-0.492238 0.667405 0.239582 0.674389 -0.0690058 0.735145
-0.492238 0.67184 0.239804 0.710842 -0.125728 0.692023
-0.492238 0.676274 0.241193 0.665007 -0.237505 0.708066
-0.492238 0.68071 0.242777 0.674312 -0.0687663 0.735238
-0.492238 0.685144 0.242023 0.741775 0.0840712 0.665358
-0.492238 0.689578 0.241658 0.691965 -0.0513743 0.720101
-0.492238 0.694012 0.242656 0.734432 -0.16276 0.658877
-0.492238 0.698448 0.243849 0.726537 -0.107909 0.678601
-0.492238 0.702882 0.244066 0.727602 -0.0930594 0.679659
-0.492238 0.707317 0.245062 0.689418 -0.0981885 0.717678
-0.492238 0.711751 0.24528 0.684228 -0.0195907 0.729005
-0.492238 0.716185 0.245302 0.660774 -0.133332 0.738647
-0.492238 0.720621 0.24688 0.72751 -0.0927798 0.679795
-0.492238 0.725055 0.246511 0.708179 -0.0342139 0.705204
-0.492238 0.729489 0.247311 0.683337 -0.0512614 0.728301
-0.492238 0.733923 0.247136 0.715265 -0.0489889 0.697134
-0.492238 0.73836 0.247934 0.710513 -0.124618 0.692561
-0.492238 0.742794 0.248732 0.699716 -0.212481 0.682092
-0.492238 0.747228 0.250698 0.723661 -0.136417 0.676539
-0.492238 0.751662 0.25052 0.730457 -0.00271643 0.682953
-0.492238 0.756096 0.250732 0.679586 -0.114132 0.724663
-0.492238 0.760532 0.251917 0.722903 -0.0329058 0.690166
-0.492238 0.764966 0.251155 0.735851 -0.0616594 0.674331
-0.492238 0.769401 0.252727 0.617731 -0.248232 0.746183
-0.492238 0.773835 0.254106 0.616517 -0.0372398 0.786461
-0.492238 0.778271 0.253148 0.697163 -0.0958863 0.710471
-0.492238 0.782705 0.255301 0.679438 -0.113667 0.724875
-0.492238 0.787139 0.254539 0.637029 0.178527 0.749881
-0.492238 0.791573 0.25319 0.554948 0.359573 0.75016
-0.492238 0.796007 0.250287 0.150918 0.795675 0.586622
-0.492238 0.800444 0.241161 0.0441371 0.903828 0.425614
-0.492238 0.804878 0.231452 0.00650919 0.912635 0.408723
-0.492238 0.809312 0.221357 -0.0117308 0.907908 0.419006
-0.492238 0.813746 0.212235 -0.0306314 0.904212 0.425983
-0.492238 0.818182 0.202531 0.0264763 0.895247 0.444784
-0.492238 0.822616 0.194383 -0.0514948 0.894345 0.444404
-0.492238 0.82705 0.184682 0.00630016 0.914008 0.405648
-0.492238 0.831485 0.174399 -0.0318353 0.896934 0.441018
-0.492238 0.835919 0.166645 -0.0222114 0.897139 0.441189
-0.492238 0.840355 0.156363 -0.045957 0.917226 0.395707
-0.492238 0.844789 0.146086 -0.0213469 0.90594 0.422869
-0.492238 0.849223 0.137364 -0.0669991 0.905718 0.418553
-0.492238 0.853657 0.126893 -0.129668 0.91303 0.386732
-0.487804 -0.108647 0.00854002 -0.866496 -0.327606 0.376642
-0.487804 -0.104213 0.0123974 -0.853092 -0.342404 0.393693
-0.487804 -0.099778 0.0162549 -0.809199 -0.36781 0.458163
-0.487804 -0.0953435 0.0195176 -0.781936 -0.284683 0.554556
-0.487804 -0.0909089 0.0208067 -0.881991 -0.18404 0.433845
-0.487804 -0.0864744 0.0232812 -0.847867 -0.30144 0.436183
-0.487804 -0.0820398 0.0269371 -0.865437 -0.284803 0.412195
-0.487804 -0.0776051 0.0294076 -0.869746 -0.183901 0.457955
-0.487804 -0.0731705 0.0304992 -0.863756 -0.20523 0.460225
-0.487804 -0.068736 0.0333628 -0.80963 -0.302545 0.502957
-0.487804 -0.0643015 0.0358333 -0.837992 -0.288755 0.463023
-0.487804 -0.0598667 0.0388945 -0.805002 -0.329535 0.493335
-0.487804 -0.0554322 0.0417582 -0.849572 -0.24044 0.469485
-0.487804 -0.0509976 0.0434364 -0.828961 -0.217909 0.51511
-0.487804 -0.0465631 0.0455098 -0.811651 -0.316726 0.490822
-0.487804 -0.0421285 0.0491597 -0.807165 -0.286945 0.515894
-0.487804 -0.0376938 0.0504429 -0.811512 -0.237513 0.533887
-0.487804 -0.0332593 0.0531049 -0.811709 -0.352236 0.465895
-0.487804 -0.0288247 0.057148 -0.80446 -0.297262 0.514276
-0.487804 -0.0243901 0.0582316 -0.833458 -0.276473 0.478446
-0.487804 -0.0199555 0.0622726 -0.802058 -0.338821 0.491838
-0.487804 -0.0155209 0.064342 -0.871261 -0.173345 0.45919
-0.487804 -0.0110864 0.0656211 -0.850544 -0.195149 0.488356
-0.487804 -0.00665177 0.0678861 -0.818899 -0.310746 0.482537
-0.487804 -0.00221719 0.0713324 -0.842814 -0.269036 0.466137
-0.487804 0.00221741 0.0730047 -0.825783 -0.305257 0.474238
-0.487804 0.00665199 0.0770417 -0.820706 -0.293631 0.490125
-0.487804 0.0110866 0.0783189 -0.850738 -0.221845 0.476475
-0.487804 0.0155211 0.0811706 -0.773457 -0.366914 0.516854
-0.487804 0.0199558 0.0846149 -0.802878 -0.314448 0.506468
-0.487804 0.0243904 0.0866783 -0.831652 -0.234211 0.503488
-0.487804 0.0288249 0.0887397 -0.806676 -0.258871 0.531281
-0.487804 0.0332595 0.0909987 -0.796275 -0.255026 0.548551
-0.487804 0.037694 0.0928646 -0.775245 -0.349665 0.526052
-0.487804 0.0421287 0.0968956 -0.793278 -0.312454 0.522573
-0.487804 0.0465633 0.0981668 -0.716399 -0.348021 0.604694
-0.487804 0.0509978 0.102 -0.72284 -0.344632 0.598942
-0.487804 0.0554324 0.103269 -0.680383 -0.283656 0.675736
-0.487804 0.0598671 0.105722 -0.679197 -0.320966 0.660055
-0.487804 0.0643017 0.107584 -0.665894 -0.234233 0.708322
-0.487804 0.0687362 0.108655 -0.474623 -0.34041 0.811698
-0.487804 0.0731707 0.111304 -0.351442 -0.361987 0.863397
-0.487804 0.0776053 0.112373 -0.327419 -0.278218 0.90299
-0.487804 0.08204 0.114035 -0.0934937 -0.21317 0.972531
-0.487804 0.0864746 0.114319 0.165439 -0.169699 0.97151
-0.487804 0.0909091 0.115584 0.340251 -0.36321 0.867357
-0.487804 0.0953437 0.118033 0.770733 -0.174893 0.612686
-0.487804 0.0997784 0.118116 0.747267 -0.0126106 0.664405
-0.487804 0.104213 0.1182 0.689176 -0.139674 0.711005
-0.487804 0.108647 0.119859 0.638706 -0.19566 0.744158
-0.487804 0.113082 0.120533 0.508023 -0.07319 0.858228
-0.487804 0.117517 0.120615 0.562259 0.0396086 0.826012
-0.487804 0.121951 0.120106 0.289132 0.357852 0.887888
-0.487804 0.126386 0.117041 0.305134 0.169812 0.937047
-0.487804 0.13082 0.1185 0.112636 -0.433105 0.894278
-0.487804 0.135255 0.121335 -0.243853 -0.59291 0.767459
-0.487804 0.13969 0.125352 -0.42493 -0.572624 0.701097
-0.487804 0.144124 0.128579 -0.55856 -0.424003 0.712904
-0.487804 0.148559 0.130627 -0.688745 -0.380591 0.617074
-0.487804 0.152993 0.134049 -0.838479 -0.293355 0.459234
-0.487804 0.157428 0.136292 -0.23429 -0.963863 0.12679
-0.487804 0.161863 0.201473 -0.175719 -0.975629 0.131415
-0.487804 0.166297 0.202138 -0.683576 0.219977 0.695941
-0.487804 0.170732 0.198669 -0.20225 0.842944 0.498538
-0.487804 0.175166 0.187141 -0.157242 0.923705 0.349347
-0.487804 0.179601 0.175219 -0.0668954 0.943595 0.324275
-0.487804 0.184035 0.161332 -0.104393 0.918017 0.382552
-0.487804 0.18847 0.153937 -0.761485 0.325959 0.560259
-0.487804 0.192904 0.156172 -0.771908 -0.147406 0.618409
-0.487804 0.197338 0.15605 -0.762832 -0.175817 0.622234
-0.487804 0.201774 0.158678 -0.746834 -0.266595 0.609234
-0.487804 0.206209 0.159931 -0.731766 -0.224462 0.643533
-0.487804 0.210643 0.161771 -0.708428 -0.245396 0.661749
-0.487804 0.215077 0.16322 -0.724167 -0.26434 0.636951
-0.487804 0.219513 0.165453 -0.70937 -0.36892 0.600577
-0.487804 0.223947 0.168668 -0.728893 -0.338944 0.594838
-0.487804 0.228381 0.170506 -0.739741 -0.245804 0.626389
-0.487804 0.232815 0.172148 -0.717497 -0.188758 0.670498
-0.487804 0.23725 0.173004 -0.744544 -0.180826 0.642616
-0.487804 0.241686 0.174645 -0.752633 -0.263313 0.603498
-0.487804 0.24612 0.176874 -0.710119 -0.190561 0.677803
-0.487804 0.250554 0.177137 -0.752564 -0.165026 0.637506
-0.487804 0.254988 0.179169 -0.762635 -0.174923 0.622727
-0.487804 0.259424 0.17963 -0.731359 -0.18435 0.656604
-0.487804 0.263858 0.181659 -0.760703 -0.188109 0.621246
-0.487804 0.268293 0.182314 -0.709473 -0.132855 0.692097
-0.487804 0.272727 0.183361 -0.733237 -0.247664 0.633267
-0.487804 0.277161 0.185784 -0.768744 -0.232876 0.595652
-0.487804 0.281597 0.18683 -0.77632 -0.218044 0.591426
-0.487804 0.286031 0.189053 -0.752427 -0.164481 0.637809
-0.487804 0.290465 0.189117 -0.788836 -0.128316 0.60106
-0.487804 0.294899 0.190947 -0.684329 -0.210743 0.698056
-0.487804 0.299336 0.191795 -0.764293 -0.198706 0.613492
-0.487804 0.30377 0.193818 -0.668556 -0.2963 0.682084
-0.487804 0.308204 0.195646 -0.755065 -0.249827 0.606187
-0.487804 0.312638 0.197474 -0.755533 -0.1364 0.640754
-0.487804 0.317072 0.197536 -0.75231 -0.163978 0.638076
-0.487804 0.321508 0.199753 -0.735575 -0.233671 0.635867
-0.487804 0.325942 0.200795 -0.702767 -0.270764 0.657879
-0.487804 0.330377 0.203405 -0.793955 -0.163243 0.585651
-0.487804 0.334811 0.203267 -0.725211 -0.114082 0.679009
-0.487804 0.339247 0.204894 -0.689433 -0.300202 0.659213
-0.487804 0.343681 0.207306 -0.687522 -0.276061 0.671643
-0.487804 0.348115 0.208539 -0.704101 -0.176168 0.6879
-0.487804 0.352549 0.209577 -0.711631 -0.174215 0.68061
-0.487804 0.356983 0.21081 -0.664786 -0.229076 0.711044
-0.487804 0.36142 0.212435 -0.650766 -0.261123 0.712965
-0.487804 0.365854 0.214057 -0.556665 -0.205714 0.804864
-0.487804 0.370288 0.214702 -0.574138 -0.15217 0.804494
-0.487804 0.374722 0.215735 -0.487271 -0.0492031 0.871864
-0.487804 0.379158 0.215201 -0.501732 -0.0486464 0.863654
-0.487804 0.383592 0.216234 -0.46322 -0.201126 0.863119
-0.487804 0.388026 0.217268 -0.230998 -0.297611 0.926319
-0.487804 0.392461 0.219084 -0.440666 -0.0699142 0.894944
-0.487804 0.396895 0.21796 -0.356264 -0.0521557 0.932929
-0.487804 0.401331 0.219581 -0.00611245 -0.226509 0.97399
-0.487804 0.405765 0.220024 -0.15727 -0.140823 0.977463
-0.487804 0.410199 0.220858 -0.137469 -0.0113318 0.990441
-0.487804 0.414633 0.220126 0.0378319 -0.055385 0.997748
-0.487804 0.419069 0.221351 0.10096 -0.224937 0.969129
-0.487804 0.423504 0.222183 0.10185 -0.183625 0.977706
-0.487804 0.427938 0.223017 0.188135 0.0970984 0.977332
-0.487804 0.432372 0.221303 0.146295 0.0763054 0.986294
-0.487804 0.436806 0.222331 0.10223 -0.162357 0.981422
-0.487804 0.441242 0.22277 0.28984 -0.0103215 0.957019
-0.487804 0.445676 0.222427 0.401409 0.261846 0.877672
-0.487804 0.45011 0.220124 0.421033 0.343199 0.839611
-0.487804 0.454545 0.218801 0.114029 0.83924 0.531671
-0.487804 0.458981 0.206125 -0.335205 0.915517 0.222412
-0.487804 0.463415 0.182292 0.913771 -0.277827 0.29637
-0.487804 0.467849 0.214438 0.330227 -0.912224 0.242483
-0.487804 0.472283 0.215658 0.724861 -0.140854 0.674341
-0.487804 0.476717 0.21629 0.732118 -0.00694632 0.681143
-0.487804 0.481153 0.215749 0.684086 -0.0713833 0.7259
-0.487804 0.485588 0.217162 0.720391 -0.11253 0.684379
-0.487804 0.490022 0.217206 0.727518 -0.111233 0.677011
-0.487804 0.494456 0.218621 0.680907 -0.118665 0.722692
-0.487804 0.498892 0.218663 0.751909 0.00814038 0.659217
-0.487804 0.503326 0.218511 0.6915 -0.0859756 0.717242
-0.487804 0.50776 0.219727 0.699595 -0.0849768 0.709469
-0.487804 0.512194 0.219573 0.74527 -0.0209703 0.666432
-0.487804 0.516629 0.220006 0.709883 0.00895265 0.704262
-0.487804 0.521065 0.219461 0.750265 -0.0640995 0.658023
-0.487804 0.525499 0.22087 0.667929 -0.225372 0.709281
-0.487804 0.529933 0.222279 0.674299 -0.0874382 0.733263
-0.487804 0.534367 0.221928 0.67514 -0.0712823 0.734237
-0.487804 0.538803 0.223139 0.752462 -0.119903 0.64763
-0.487804 0.543237 0.22357 0.714882 -0.082566 0.694353
-0.487804 0.547672 0.224195 0.715677 -0.0672742 0.695184
-0.487804 0.552106 0.224428 0.724038 0.0396327 0.68862
-0.487804 0.55654 0.223684 0.71709 -0.0212312 0.696657
-0.487804 0.560976 0.224697 0.716745 -0.0365087 0.696379
-0.487804 0.56541 0.224149 0.687643 -0.131711 0.714003
-0.487804 0.569844 0.226334 0.687624 -0.13165 0.714032
-0.487804 0.574278 0.225783 0.737871 0.0390882 0.673809
-0.487804 0.578715 0.225819 0.694249 -0.145323 0.704911
-0.487804 0.583149 0.227613 0.690792 -0.175424 0.70145
-0.487804 0.587583 0.228038 0.709249 0.0255514 0.704494
-0.487804 0.592017 0.22729 0.626109 -0.091176 0.774387
-0.487804 0.596451 0.229082 0.592382 -0.111443 0.797912
-0.487804 0.600887 0.228529 0.675252 0.0592392 0.735204
-0.487804 0.605321 0.228367 0.730936 -0.0350367 0.681546
-0.487804 0.609756 0.228986 0.721902 -0.0806448 0.68728
-0.487804 0.61419 0.229407 0.688723 -0.189814 0.699736
-0.487804 0.618626 0.231391 0.703449 -0.128031 0.699119
-0.487804 0.62306 0.231031 0.636711 0.0790285 0.767042
-0.487804 0.627494 0.230477 0.715445 -0.154592 0.681351
-0.487804 0.631928 0.233045 0.684183 -0.161306 0.711248
-0.487804 0.636362 0.232488 0.72349 0.0408725 0.689124
-0.487804 0.640799 0.232518 0.676172 -0.00486072 0.736728
-0.487804 0.645233 0.232548 0.719007 -0.181421 0.670907
-0.487804 0.649667 0.234917 0.659585 -0.15047 0.736415
-0.487804 0.654101 0.23436 0.692867 0.0271614 0.720553
-0.487804 0.658537 0.234582 0.72548 -0.123296 0.677109
-0.487804 0.662971 0.235974 0.650223 -0.151836 0.744416
-0.487804 0.667405 0.236392 0.657815 -0.00451204 0.753166
-0.487804 0.67184 0.236028 0.626524 -0.0727995 0.775995
-0.487804 0.676274 0.237224 0.675529 -0.162261 0.719258
-0.487804 0.68071 0.238028 0.768742 0.0244498 0.639091
-0.487804 0.685144 0.236884 0.692868 0.0118128 0.720968
-0.487804 0.689578 0.237884 0.640492 -0.152981 0.752573
-0.487804 0.694012 0.238686 0.650072 -0.151278 0.744662
-0.487804 0.698448 0.239684 0.684318 -0.0198812 0.728912
-0.487804 0.702882 0.238928 0.68829 -0.113888 0.71644
-0.487804 0.707317 0.241095 0.72636 -0.218087 0.651797
-0.487804 0.711751 0.241897 0.652869 -0.118745 0.748105
-0.487804 0.716185 0.242502 0.63802 0.0131504 0.769908
-0.487804 0.720621 0.241746 0.744144 0.0114757 0.667921
-0.487804 0.725055 0.24235 0.711849 -0.10988 0.693684
-0.487804 0.729489 0.24315 0.690274 -0.0822194 0.718861
-0.487804 0.733923 0.243364 0.673994 -0.0679003 0.735609
-0.487804 0.73836 0.243969 0.633246 -0.120827 0.764461
-0.487804 0.742794 0.244767 0.644306 -0.103051 0.757793
-0.487804 0.747228 0.245174 0.736982 -0.0324615 0.675132
-0.487804 0.751662 0.245192 0.743863 -0.132074 0.655152
-0.487804 0.756096 0.246962 0.710422 -0.124368 0.692699
-0.487804 0.760532 0.246784 0.743135 -0.0465216 0.667523
-0.487804 0.764966 0.247581 0.685191 -0.14369 0.714049
-0.487804 0.769401 0.24857 0.722015 -0.150618 0.675284
-0.487804 0.773835 0.249558 0.728904 -0.0622487 0.68178
-0.487804 0.778271 0.249381 0.646604 -0.0526999 0.761003
-0.487804 0.782705 0.250173 0.741686 -0.0753274 0.666504
-0.487804 0.787139 0.250382 0.715485 0.0283414 0.698053
-0.487804 0.791573 0.249814 0.599908 0.232575 0.765519
-0.487804 0.796007 0.247688 0.40234 0.656031 0.638549
-0.487804 0.800444 0.240702 0.0509238 0.869845 0.49069
-0.487804 0.804878 0.231965 -0.0408842 0.898641 0.436776
-0.487804 0.809312 0.222452 -0.0402271 0.902208 0.429421
-0.487804 0.813746 0.213331 -0.0575627 0.906436 0.418401
-0.487804 0.818182 0.203239 -0.106574 0.895995 0.431086
-0.487804 0.822616 0.194898 0.00652642 0.90947 0.415719
-0.487804 0.82705 0.183836 -0.0206609 0.910829 0.412268
-0.487804 0.831485 0.175301 -0.0805921 0.892561 0.443667
-0.487804 0.835919 0.165992 0.062529 0.902741 0.425615
-0.487804 0.840355 0.156491 -0.0507117 0.898032 0.436998
-0.487804 0.844789 0.147767 -0.0779813 0.899991 0.428876
-0.487804 0.849223 0.137878 -0.0664091 0.907344 0.415111
-0.487804 0.853657 0.12838 -0.0583453 0.904561 0.422334
-0.483369 -0.139689 -0.00195465 -0.888581 -0.301234 0.34595
-0.483369 -0.135255 0.00190676 -0.840368 -0.361006 0.404297
-0.483369 -0.13082 0.00596374 -0.817151 -0.383883 0.429998
-0.483369 -0.126386 0.00982516 -0.773418 -0.368521 0.515768
-0.483369 -0.121951 0.0123017 -0.805087 -0.25209 0.536922
-0.483369 -0.117516 0.0139879 -0.782836 -0.312451 0.538091
-0.483369 -0.113082 0.0174522 -0.828292 -0.264705 0.493826
-0.483369 -0.108647 0.0187433 -0.872884 -0.222927 0.434024
-0.483369 -0.104213 0.0220081 -0.837374 -0.282107 0.468209
-0.483369 -0.099778 0.0240875 -0.854673 -0.202807 0.477916
-0.483369 -0.0953435 0.0257717 -0.803992 -0.322928 0.499313
-0.483369 -0.0909089 0.0298227 -0.809641 -0.333694 0.482835
-0.483369 -0.0864744 0.0319001 -0.861332 -0.161366 0.481735
-0.483369 -0.0820398 0.0327941 -0.820953 -0.242174 0.517096
-0.483369 -0.0776051 0.0360549 -0.79284 -0.367962 0.485807
-0.483369 -0.0731705 0.0395112 -0.857947 -0.234337 0.45718
-0.483369 -0.068736 0.0406007 -0.844418 -0.252577 0.472402
-0.483369 -0.0643015 0.0442526 -0.815313 -0.314108 0.486416
-0.483369 -0.0598667 0.046328 -0.813412 -0.299686 0.498548
-0.483369 -0.0554322 0.0495848 -0.825828 -0.274221 0.492759
-0.483369 -0.0509976 0.051263 -0.848733 -0.23255 0.474945
-0.483369 -0.0465631 0.0539271 -0.861081 -0.206737 0.464542
-0.483369 -0.0421285 0.0552103 -0.837214 -0.222296 0.499656
-0.483369 -0.0376938 0.0578723 -0.836766 -0.31747 0.446134
-0.483369 -0.0332593 0.0615222 -0.818888 -0.311015 0.482382
-0.483369 -0.0288247 0.0635916 -0.778381 -0.340129 0.52767
-0.483369 -0.0243901 0.0672395 -0.830611 -0.253409 0.495852
-0.483369 -0.0199555 0.0681236 -0.829247 -0.271346 0.488591
-0.483369 -0.0155209 0.0721646 -0.810403 -0.339443 0.477521
-0.483369 -0.0110864 0.0744295 -0.848702 -0.232097 0.475222
-0.483369 -0.00665177 0.076495 -0.845766 -0.266713 0.462108
-0.483369 -0.00221719 0.0795482 -0.81744 -0.270766 0.508407
-0.483369 0.00221741 0.0812185 -0.830591 -0.253086 0.49605
-0.483369 0.00665199 0.0840721 -0.80165 -0.307171 0.512838
-0.483369 0.0110866 0.0865326 -0.809575 -0.227791 0.541017
-0.483369 0.0155211 0.0878078 -0.798837 -0.222776 0.558775
-0.483369 0.0199558 0.0900668 -0.701599 -0.412379 0.581122
-0.483369 0.0243904 0.0941018 -0.644196 -0.37063 0.669062
-0.483369 0.0288249 0.0949819 -0.696423 -0.239386 0.676528
-0.483369 0.0332595 0.0972388 -0.576838 -0.395668 0.714636
-0.483369 0.037694 0.0998909 -0.516517 -0.427238 0.742076
-0.483369 0.0421287 0.102345 -0.348808 -0.239747 0.90601
-0.483369 0.0465633 0.102238 -0.357413 -0.101215 0.928446
-0.483369 0.0509978 0.103313 -0.00705362 -0.275505 0.961274
-0.483369 0.0554324 0.10478 0.033337 -0.437132 0.898779
-0.483369 0.0598671 0.107626 0.197133 -0.344394 0.917895
-0.483369 0.0643017 0.108109 0.795734 -0.0785505 0.60053
-0.483369 0.0687362 0.108787 0.732006 -0.0734918 0.677323
-0.483369 0.0731707 0.109071 0.755249 -0.167199 0.633754
-0.483369 0.0776053 0.111126 0.626685 -0.214228 0.749248
-0.483369 0.08204 0.111607 0.650039 -0.0651118 0.757106
-0.483369 0.0864746 0.111888 0.463878 -0.0758269 0.882648
-0.483369 0.0909091 0.112367 0.353403 0.469396 0.809181
-0.483369 0.0953437 0.106744 0.272953 0.342027 0.899174
-0.483369 0.0997784 0.108995 0.0132658 -0.467978 0.883641
-0.483369 0.104213 0.111441 -0.241627 -0.523324 0.817158
-0.483369 0.108647 0.114674 -0.326882 -0.496873 0.803906
-0.483369 0.113082 0.116923 -0.492271 -0.3797 0.783261
-0.483369 0.117517 0.118975 -0.564252 -0.466256 0.681341
-0.483369 0.121951 0.122992 -0.728436 -0.360005 0.582904
-0.483369 0.126386 0.124452 -0.862418 -0.220643 0.455579
-0.483369 0.13082 0.127288 -0.828331 -0.336256 0.448107
-0.483369 0.135255 0.131108 -0.828332 -0.336206 0.448143
-0.483369 0.13969 0.133941 -0.823194 -0.282117 0.492708
-0.483369 0.144124 0.136186 -0.784335 -0.317044 0.5332
-0.483369 0.148559 0.139216 -0.812177 -0.289776 0.506358
-0.483369 0.152993 0.141261 -0.795441 -0.273437 0.540838
-0.483369 0.157428 0.1437 -0.174285 -0.976036 0.130298
-0.483369 0.161863 0.207697 -0.164805 -0.97678 0.136893
-0.483369 0.166297 0.206985 -0.607794 0.497563 0.618884
-0.483369 0.170732 0.200567 -0.199661 0.883893 0.42293
-0.483369 0.175166 0.188448 -0.119831 0.935756 0.331665
-0.483369 0.179601 0.175545 -0.113389 0.935628 0.33428
-0.483369 0.184035 0.163623 -0.206017 0.86492 0.457679
-0.483369 0.18847 0.158784 -0.74742 0.160725 0.644617
-0.483369 0.192904 0.161412 -0.695617 -0.275705 0.663403
-0.483369 0.197338 0.16247 -0.770124 -0.198146 0.606339
-0.483369 0.201774 0.164312 -0.769307 -0.256063 0.58532
-0.483369 0.206209 0.166349 -0.780702 -0.193975 0.594035
-0.483369 0.210643 0.167207 -0.777428 -0.183074 0.601738
-0.483369 0.215077 0.169047 -0.777023 -0.262692 0.572038
-0.483369 0.219513 0.17128 -0.731645 -0.284409 0.619522
-0.483369 0.223947 0.173118 -0.720322 -0.214996 0.659479
-0.483369 0.228381 0.174172 -0.708037 -0.205224 0.675697
-0.483369 0.232815 0.175812 -0.751877 -0.240728 0.613785
-0.483369 0.23725 0.17765 -0.743987 -0.278497 0.60739
-0.483369 0.241686 0.179879 -0.768798 -0.233352 0.595396
-0.483369 0.24612 0.181126 -0.741619 -0.154551 0.652775
-0.483369 0.250554 0.181978 -0.748263 -0.229936 0.62228
-0.483369 0.254988 0.184403 -0.763289 -0.235538 0.601591
-0.483369 0.259424 0.185453 -0.788918 -0.128732 0.600863
-0.483369 0.263858 0.186303 -0.744407 -0.180366 0.642905
-0.483369 0.268293 0.187939 -0.77189 -0.184117 0.608512
-0.483369 0.272727 0.188987 -0.781435 -0.215935 0.585432
-0.483369 0.277161 0.191212 -0.74322 -0.255388 0.618386
-0.483369 0.281597 0.192651 -0.756426 -0.214114 0.618041
-0.483369 0.286031 0.194285 -0.71278 -0.25517 0.653324
-0.483369 0.290465 0.196113 -0.781961 -0.0906539 0.6167
-0.483369 0.294899 0.195588 -0.733069 -0.169618 0.658665
-0.483369 0.299336 0.198398 -0.773142 -0.207345 0.599383
-0.483369 0.30377 0.198655 -0.770946 -0.219907 0.597732
-0.483369 0.308204 0.201661 -0.722212 -0.199609 0.662244
-0.483369 0.312638 0.201329 -0.676674 -0.137885 0.723256
-0.483369 0.317072 0.203351 -0.755011 -0.24966 0.606323
-0.483369 0.321508 0.204981 -0.734693 -0.154982 0.660459
-0.483369 0.325942 0.205432 -0.645224 -0.290712 0.706521
-0.483369 0.330377 0.208631 -0.562797 -0.314452 0.764447
-0.483369 0.334811 0.209082 -0.662412 -0.09196 0.743474
-0.483369 0.339247 0.209727 -0.650638 -0.125678 0.748916
-0.483369 0.343681 0.210569 -0.4595 -0.238098 0.855669
-0.483369 0.348115 0.212195 -0.474208 -0.235922 0.848214
-0.483369 0.352549 0.213037 -0.494235 -0.180031 0.850482
-0.483369 0.356983 0.214073 -0.404481 -0.150953 0.902003
-0.483369 0.36142 0.21452 -0.374201 -0.0525084 0.92586
-0.483369 0.365854 0.214576 -0.217075 -0.201839 0.95506
-0.483369 0.370288 0.216396 -0.134004 -0.225182 0.965058
-0.483369 0.374722 0.216645 -0.158645 -0.0555992 0.985769
-0.483369 0.379158 0.216895 -0.237 -0.200567 0.950581
-0.483369 0.383592 0.218517 -0.261171 -0.0753595 0.962346
-0.483369 0.388026 0.217589 -0.178698 -0.119516 0.976618
-0.483369 0.392461 0.219603 0.0784947 -0.285622 0.955122
-0.483369 0.396895 0.220241 -0.115322 0.0976143 0.98852
-0.483369 0.401331 0.218727 0.103548 -0.0554043 0.99308
-0.483369 0.405765 0.220736 0.0804974 -0.184404 0.979549
-0.483369 0.410199 0.220397 0.288735 0.0943278 0.952751
-0.483369 0.414633 0.219858 0.230072 0.0533565 0.97171
-0.483369 0.419069 0.21991 0.327817 -0.0314885 0.944217
-0.483369 0.423504 0.220156 0.415896 -0.0302288 0.90891
-0.483369 0.427938 0.220203 0.547529 -0.0645109 0.834296
-0.483369 0.432372 0.22084 0.343244 -0.133382 0.929727
-0.483369 0.436806 0.221477 0.46374 -0.0291972 0.88549
-0.483369 0.441242 0.221133 0.527261 0.174587 0.831574
-0.483369 0.445676 0.219615 0.580712 0.232718 0.780138
-0.483369 0.45011 0.218487 0.3734 0.209761 0.903644
-0.483369 0.454545 0.217555 0.442568 0.562729 0.698191
-0.483369 0.458981 0.211339 -0.137462 0.946285 0.292657
-0.483369 0.463415 0.188877 -0.806434 0.233948 0.543076
-0.483369 0.467849 0.207518 0.879898 -0.438443 0.183159
-0.483369 0.472283 0.210108 0.740186 -0.217226 0.636347
-0.483369 0.476717 0.210545 0.683003 -0.179125 0.708111
-0.483369 0.481153 0.212353 0.70758 -0.0845333 0.701559
-0.483369 0.485588 0.211615 0.732065 0.00815956 0.681186
-0.483369 0.490022 0.212245 0.735547 -0.095467 0.670713
-0.483369 0.494456 0.212878 0.736489 -0.0807102 0.671617
-0.483369 0.498892 0.213313 0.663691 -0.197955 0.721338
-0.483369 0.503326 0.21531 0.726172 -0.125793 0.675907
-0.483369 0.50776 0.214963 0.691354 0.0879963 0.717137
-0.483369 0.512194 0.214223 0.708936 -0.0531969 0.703264
-0.483369 0.516629 0.215634 0.734314 -0.109689 0.669889
-0.483369 0.521065 0.215676 0.645504 -0.107059 0.756216
-0.483369 0.525499 0.216889 0.724644 -0.140073 0.674737
-0.483369 0.529933 0.217515 0.744869 -0.0354413 0.666268
-0.483369 0.534367 0.21736 0.65847 0.0263703 0.752145
-0.483369 0.538803 0.217204 0.747397 -0.106998 0.655705
-0.483369 0.543237 0.218809 0.691297 -0.0853933 0.717507
-0.483369 0.547672 0.21826 0.763873 0.00858673 0.64531
-0.483369 0.552106 0.218691 0.755671 -0.146169 0.638432
-0.483369 0.55654 0.220291 0.634204 -0.124199 0.763125
-0.483369 0.560976 0.220134 0.667595 -0.022667 0.74418
-0.483369 0.56541 0.220561 0.639357 -0.171349 0.749575
-0.483369 0.569844 0.222161 0.73159 -0.00562417 0.681722
-0.483369 0.574278 0.220635 0.72981 0.0693553 0.680123
-0.483369 0.578715 0.221257 0.70216 -0.143823 0.697342
-0.483369 0.583149 0.222464 0.744604 -0.134759 0.653762
-0.483369 0.587583 0.223085 0.717203 -0.140601 0.682533
